# .PCD v0.7 - Point Cloud Data file format
VERSION 0.7
FIELDS x y z intensity
SIZE 4 4 4 4
TYPE F F F F
COUNT 1 1 1 1
WIDTH 1393
HEIGHT 1
VIEWPOINT 0 0 0 1 0 0 0
POINTS 1393
DATA ascii
-2.0244248 23.819044 -1.9947478 38
-1.0976123 22.644817 -1.9603671 15
-0.27046993 22.39311 -2.0014355 22
0.54494232 22.425827 -2.0727029 14
1.3762327 22.663488 -2.1626704 13
2.1548638 22.144133 -2.1873882 8
-1.8465673 21.7264 -2.2056165 9
-1.0054411 20.743237 -2.1637073 4
-0.24262489 20.087727 -2.1508162 2
-0.20665962 17.110041 -2.1352663 5
-0.17437547 14.437129 -2.0571716 3
-0.15049404 12.459905 -1.9981296 3
-0.13445674 11.132123 -1.9820755 3
-0.1212715 10.040473 -1.9667304 3
-0.11092896 9.1841793 -1.9616847 3
-0.10166431 8.4171286 -1.9471033 3
-0.094179139 7.7974057 -1.9413625 4
-0.067079209 5.5537124 -1.9058241 3
-0.049102243 4.0653386 -1.8912603 0
-0.61491221 71.607742 3.7404084 2
-0.42665267 49.684544 1.7159853 5
10.90756 108.17156 2.7937698 23
-3.1474569 38.629997 0.88021898 10
-1.3867178 30.834787 0.6109798 2
-0.43948489 51.178883 0.86030287 5
3.7563665 58.484005 0.63930142 2
10.239447 101.54579 0.81585091 12
-3.1514771 38.67934 0.19439214 14
-1.3868067 30.836765 0.064110994 3
-0.43779507 50.982101 -0.044491928 1
1.5716196 24.469021 -0.16561723 65
2.4972208 24.765234 -0.2424178 131
-1.9429874 23.847061 -0.30276814 157
-1.0804548 24.024782 -0.37569371 99
-0.20732112 24.142954 -0.44798851 74
0.67439216 24.264999 -0.52288675 184
1.5701604 24.446302 -0.59911364 65
2.5000098 24.792892 -0.68385315 60
-1.9415997 23.830029 -0.72547376 52
-1.0799862 24.014364 -0.80164391 55
-0.20711747 24.119238 -0.87517112 55
0.67480677 24.279917 -0.95347977 58
1.5707719 24.455822 -1.0335418 52
2.4992061 24.78492 -1.1250846 69
-1.9409052 23.821505 -1.1480206 56
-1.077745 23.964527 -1.2248722 53
-0.20719253 24.127977 -1.3025491 43
0.67412269 24.255304 -1.3820965 58
1.569872 24.441811 -1.4658281 56
2.5000267 24.793058 -1.5668839 50
-1.9405766 23.817472 -1.571279 66
-1.0776819 23.963125 -1.6495943 35
-0.20699744 24.105261 -1.7279502 47
0.67400515 24.251076 -1.8118033 61
1.5692501 24.432129 -1.8988683 42
2.4964674 24.757759 -2.0055604 36
-1.9412686 23.825964 -1.9947478 37
-1.0164119 22.600737 -1.956232 56
-0.19339651 22.521404 -2.0128295 15
0.62421566 22.459621 -2.076015 15
1.4583975 22.706232 -2.1672218 12
2.2333462 22.148359 -2.1885622 8
-1.7703936 21.728748 -2.2052138 9
-0.93213385 20.726748 -2.1616347 4
-0.17240171 20.076519 -2.1495388 3
-0.14676274 17.090811 -2.1327899 5
-0.12418346 14.461409 -2.0605569 3
-0.10710169 12.472202 -2.0000296 3
-0.095394664 11.108897 -1.9778687 3
-0.086256675 10.04476 -1.9674991 3
-0.078970283 9.1962452 -1.9641911 4
-0.072349362 8.4252262 -1.9489062 4
-0.066927209 7.7938056 -1.9403962 4
-0.047465313 5.5274291 -1.8967364 3
-0.034630977 4.0328455 -1.8760762 0
-0.36234504 71.098152 3.7137017 3
-0.25413543 49.865623 1.7221981 1
11.298366 108.2601 2.7970579 14
-1.2747669 30.73555 0.60892153 1
-0.2548829 50.012287 0.84067261 0
3.0328083 44.774734 0.48955515 12
4.7247982 45.272667 0.36386517 3
-3.1212182 40.034008 0.20114438 4
-1.2889377 31.077215 0.064601153 50
-0.25981128 50.979317 -0.044488437 1
1.8243486 58.311043 -0.22299075 4
1.6572932 24.467377 -0.16564424 94
2.5894649 24.812061 -0.24296317 91
-1.8622209 23.885599 -0.30317307 115
-0.9959231 24.012423 -0.37544379 132
-0.1231879 24.171526 -0.44850796 68
0.75971395 24.282482 -0.52331746 185
1.6571058 24.464609 -0.59970045 73
2.5915184 24.831738 -0.68516994 60
-1.8599594 23.856592 -0.72608036 49
-0.99681658 24.033966 -0.80217719 58
-0.12312808 24.159788 -0.87662154 51
0.7600553 24.293394 -0.95410734 67
1.6585598 24.486076 -1.0350587 55
2.5902689 24.819763 -1.12707 68
-1.8596041 23.852036 -1.1491722 54
-0.9952454 23.996082 -1.2263 55
-0.12290783 24.116571 -1.3019023 45
0.75916004 24.264778 -1.3827789 59
1.6578786 24.476021 -1.4682177 56
2.5906992 24.823887 -1.5693941 47
-1.858357 23.836039 -1.5720664 72
-0.99419379 23.970728 -1.6498687 37
-0.12295478 24.125784 -1.7293801 42
0.75890261 24.25655 -1.8123991 56
1.6574892 24.47027 -1.9022708 47
2.5849421 24.768723 -2.0071671 36
-1.8596377 23.852467 -1.996411 44
-0.93734926 22.600166 -1.9558873 12
-0.11461852 22.49007 -2.0099809 38
0.70298421 22.46925 -2.0771191 14
1.5403392 22.740732 -2.1710148 14
2.3081658 22.116673 -2.186214 8
-1.6939166 21.72686 -2.2044089 8
-0.86159188 20.7736 -2.1661942 4
-0.10240161 20.092907 -2.151242 3
-0.087164477 17.103127 -2.1342757 5
-0.073521331 14.426115 -2.0554788 3
-0.063484408 12.456702 -1.9974964 3
-0.056717146 11.128853 -1.9813743 3
-0.051333431 10.072477 -1.9728812 3
-0.046669558 9.1573477 -1.9558364 3
-0.042939395 8.4254274 -1.9489062 3
-0.039681781 7.7862291 -1.9384634 4
-0.028267102 5.5464783 -1.9032276 3
-0.020608958 4.0438218 -1.8811376 1
-0.11277851 70.23616 3.6686339 6
-0.088857964 55.338936 1.9112064 1
8.8209009 123.81544 3.5496354 10
-3.7200401 49.964787 1.1378728 3
-1.1729361 30.88368 0.6117714 27
-0.080357254 50.044865 0.84121042 4
5.5194874 158.69272 2.2061646 9
3.1740184 44.552422 0.48724264 27
4.7918382 44.412819 0.35708666 2
-1.8689405 25.102205 0.12608841 4
-1.1716453 30.849693 0.064119302 20
-0.087420821 54.443909 -0.047511347 4
2.0004904 57.5168 -0.21997881 5
1.7446799 24.48937 -0.16583337 74
2.6807792 24.846615 -0.24339168 92
-1.7782393 23.883976 -0.30307183 144
-0.91346413 24.051723 -0.37600613 101
-0.038844883 24.191805 -0.448879 74
0.84544408 24.307659 -0.52392048 151
1.7459031 24.50654 -0.60087401 62
2.6811841 24.850367 -0.68593806 58
-1.7775636 23.874901 -0.7264443 52
-0.91261286 24.029308 -0.80191052 58
-0.038819604 24.17606 -0.87720174 57
0.84568405 24.31456 -0.95504874 57
1.745442 24.500069 -1.0359014 56
2.6828911 24.86619 -1.1295966 68
-1.7751471 23.842443 -1.1484045 54
-0.91162896 24.003403 -1.226504 56
-0.038782258 24.152802 -1.3038429 44
0.84496582 24.293909 -1.3845986 59
1.7450082 24.49398 -1.4696516 62
2.6850431 24.886135 -1.5739125 39
-1.7754387 23.846361 -1.5723288 72
-0.91127151 23.993992 -1.6512409 33
-0.038739327 24.126066 -1.7293801 37
0.8445397 24.281658 -1.8144845 63
1.7443132 24.484224 -1.9038173 47
2.6701021 24.747656 -2.0062029 22
-1.6819538 22.590742 -1.8903037 20
-0.87055367 22.921881 -1.9834545 13
-0.036112823 22.490334 -2.0099809 19
0.78182763 22.4786 -2.0782232 13
1.6208416 22.751104 -2.1725318 15
2.3836451 22.092649 -2.1846485 7
-1.6195428 21.752483 -2.2064216 8
-0.78907323 20.776482 -2.1661942 4
-0.032174237 20.03746 -2.1452806 3
-0.027456513 17.099358 -2.1337805 5
-0.023215214 14.457963 -2.0599928 3
-0.019957623 12.429201 -1.9930631 3
-0.017869854 11.128983 -1.9813743 3
-0.016167305 10.06867 -1.9721123 3
-0.014760695 9.1926613 -1.9633557 3
-0.01351013 8.4138346 -1.9462018 3
-0.012496294 7.7824383 -1.9374971 4
-0.0089304084 5.561677 -1.9084206 4
-0.0065049054 4.0511231 -1.8845118 0
0.12703052 67.391701 2.3274665 2
9.2187672 123.32536 3.5364866 16
11.254157 101.00138 2.6114848 18
-3.5504186 50.04528 1.1394168 6
-1.0614035 30.779671 0.60963398 3
0.096744813 51.324657 0.86272305 0
6.0724769 158.6485 2.2058311 16
3.3494925 44.808311 0.49016601 3
4.943738 44.367992 0.35686284 3
-2.2794943 32.13084 0.16135229 10
-1.0760838 31.205385 0.064850383 13
0.10454708 55.463879 -0.048401464 0
3.0078232 78.581879 -0.30058268 2
1.8346256 24.542963 -0.16623862 55
2.7719231 24.876858 -0.24378122 89
-1.695707 23.902006 -0.30322367 132
-0.82936454 24.050768 -0.37594363 93
0.045600511 24.191793 -0.448879 73
0.93181807 24.344522 -0.52478188 108
1.8326286 24.516249 -0.60126519 68
2.7749963 24.90444 -0.68769377 69
-1.6942137 23.880959 -0.7264443 43
-0.82900494 24.040339 -0.80217719 68
0.045578364 24.180046 -0.87734675 54
0.93116403 24.327435 -0.95567632 74
1.833038 24.521725 -1.0370814 51
2.7740991 24.896387 -1.1314013 68
-1.692476 23.856466 -1.1487883 59
-0.82769823 24.002445 -1.2263 59
0.04551946 24.148796 -1.3036273 38
0.93052596 24.310764 -1.385736 59
1.8319857 24.507648 -1.4708464 53
2.774106 24.89645 -1.5751677 45
-1.6919061 23.848431 -1.5720664 60
-0.82778639 24.005003 -1.6517898 36
0.045491636 24.134035 -1.7299522 30
0.92944592 24.282547 -1.8147824 69
1.8321468 24.509802 -1.9062918 48
2.727772 24.480619 -1.9853151 21
-1.6896871 23.817154 -1.9924195 40
-0.78641587 22.805298 -1.9731169 15
0.042581055 22.589924 -2.0188825 22
0.86165893 22.511555 -2.0815353 15
1.7017322 22.765162 -2.1744282 13
2.4589851 22.068369 -2.1830831 6
-1.543321 21.754036 -2.2060189 8
-0.71476251 20.727421 -2.1608057 4
0.03787471 20.093132 -2.151242 3
0.032194145 17.079504 -2.1313038 5
0.027222781 14.442117 -2.0577357 3
0.023495512 12.464741 -1.998763 3
0.020970229 11.125039 -1.9806732 3
0.01895681 10.056889 -1.9698057 3
0.017349891 9.2043915 -1.965862 3
0.015925828 8.448904 -1.9543148 4
0.014647611 7.7707901 -1.9345981 4
0.010447863 5.542757 -1.9019294 7
0.0075746649 4.0184798 -1.8693278 1
0.38576388 71.761139 3.748337 2
2.4224925 57.992451 1.834216 1
11.494305 99.984245 2.5862074 12
-3.333194 49.426964 1.1250674 2
-0.95395589 30.78319 0.60963398 32
0.29185322 54.291546 0.9126054 2
2.4318142 58.215607 0.8095364 5
3.4787316 44.449429 0.48637 6
5.1086311 44.437889 0.35756627 1
-2.1218395 31.46414 0.15796615 3
-0.96640664 31.184961 0.064800538 7
0.27071452 50.359253 -0.043947384 2
1.8961428 45.392082 -0.17365299 2
1.9240304 24.584263 -0.16656284 58
2.8642244 24.914713 -0.24424869 86
-1.6136086 23.927732 -0.30347672 116
-0.74590218 24.069508 -0.37619355 71
0.13017434 24.215483 -0.44932425 63
1.0171244 24.349112 -0.5249542 118
1.9238112 24.581461 -0.60302556 57
2.8673921 24.942268 -0.68901056 62
-1.6119194 23.902685 -0.72692955 51
-0.74632174 24.083044 -0.80351037 56
0.13006815 24.195728 -0.87792689 52
1.0174115 24.355984 -0.95693153 67
1.92143 24.551035 -1.0385983 47
2.8650942 24.922279 -1.1330256 61
-1.6105353 23.88216 -1.1497478 57
-0.74440396 24.02116 -1.227116 83
0.12985715 24.156479 -1.3040586 41
1.0160474 24.323328 -1.3866459 67
1.9212607 24.548872 -1.473714 57
2.8664653 24.934206 -1.5781798 47
-1.6094549 23.866138 -1.5728537 59
-0.7434938 23.991791 -1.650692 47
0.12982064 24.149687 -1.7310961 33
1.0152011 24.303068 -1.8165697 64
1.9226693 24.566872 -1.9112408 44
2.8095658 24.43926 -1.9827443 20
-1.6092215 23.862679 -1.9957457 35
-0.71470577 23.06283 -1.9951705 17
0.12132727 22.569717 -2.0171022 20
0.94123107 22.532288 -2.0837436 13
1.7827405 22.778933 -2.1763246 13
2.5400949 22.095243 -2.1866055 7
-1.4687147 21.779142 -2.2080319 8
-0.64326859 20.757624 -2.1637073 4
0.10788432 20.069016 -2.1486871 3
0.091791205 17.075317 -2.1308086 5
0.077677585 14.449853 -2.0588641 2
0.067005433 12.464583 -1.998763 3
0.059782565 11.12096 -1.979972 2
0.054103993 10.064612 -1.9713434 3
0.049394995 9.1886282 -1.9625201 3
0.045313165 8.4293118 -1.9498076 3
0.041876968 7.7900991 -1.9394298 4
0.029876985 5.5578203 -1.9071224 5
0.021855181 4.0655766 -1.8912603 1
2.6261747 58.0116 1.8351004 0
10.033235 122.69212 3.5202506 9
11.86442 100.12221 2.5908313 20
-3.1802869 49.74559 1.1320604 8
-0.84627688 30.778336 0.60947567 2
0.64649975 72.914833 1.2256812 1
2.6158369 57.783237 0.80364603 5
3.6472337 44.60046 0.48815891 2
5.2768965 44.531002 0.35846153 0
-1.6131186 25.232172 0.12664942 13
-1.3742707 49.981003 0.10384702 5
0.59318113 66.901344 -0.058384746 2
2.0480671 45.241337 -0.17310259 1
2.0114639 24.59733 -0.16669792 84
2.9554117 24.940311 -0.24459928 85
-1.5293099 23.921246 -0.30332491 163
-0.66198933 24.075962 -0.37625605 97
0.21477227 24.222878 -0.44947267 64
1.1022934 24.349409 -0.52504033 135
2.0115602 24.598509 -0.60361236 60
2.9563215 24.94799 -0.68944949 60
-1.5279635 23.900185 -0.72668695 47
-0.66203189 24.077511 -0.8032437 63
0.2147743 24.223108 -0.87894219 57
1.1027851 24.36027 -0.95724535 69
2.0097232 24.576044 -1.0399467 52
2.9595952 24.975618 -1.1359133 68
-1.5281808 23.903585 -1.1505156 58
-0.66098911 24.039585 -1.2279319 79
0.21435528 24.175848 -1.3051366 45
1.1025709 24.355539 -1.3886931 61
2.0088933 24.565893 -1.4751478 62
2.9600613 24.979549 -1.5816942 34
-1.5263914 23.875595 -1.5731162 67
-0.66051006 24.022163 -1.652613 41
0.21418874 24.157066 -1.7316681 43
1.1016519 24.335239 -1.8192508 62
2.0113373 24.595783 -1.9140246 46
2.9436526 24.84108 -2.016165 23
-1.5279499 23.899975 -1.9984066 40
-0.63518292 23.101036 -1.9982718 16
0.20120458 22.692659 -2.0281403 20
1.0222193 22.580591 -2.0885277 13
1.8645147 22.800352 -2.1789796 12
2.6195483 22.106009 -2.1885622 7
-1.3939519 21.803995 -2.2100446 7
-0.57124442 20.775652 -2.1653652 4
0.17804338 20.080448 -2.1499646 3
0.15128906 17.062986 -2.1293228 5
0.12794097 14.429695 -2.0560431 2
0.11058457 12.472172 -2.0000296 3
0.098566681 11.116746 -1.9792709 3
0.088957287 10.03296 -1.9651926 3
0.081503674 9.1923113 -1.9633557 3
0.074598469 8.4135151 -1.9462018 3
0.069138065 7.797668 -1.9413625 4
0.049277216 5.557682 -1.9071224 5
0.036014404 4.0618486 -1.8895732 1
0.87714279 70.980255 2.4515851 3
10.386695 121.77989 3.4950962 10
11.517746 94.376396 2.4431744 8
-2.3384845 38.699413 0.88049144 4
-0.75159866 31.312845 0.62000436 2
0.83093923 67.241364 1.1303533 1
2.8389525 58.213192 0.80975866 19
3.7835214 44.360294 0.48567188 0
3.7097261 30.39749 0.24479364 10
-3.0459628 50.407421 0.25295824 2
-0.99707854 41.539948 0.086301021 23
0.88606793 71.702499 -0.062577024 1
2.8325813 58.082546 -0.22227217 32
2.102411 24.64994 -0.16710319 78
3.0502043 24.99337 -0.24522257 112
-1.4474885 23.954386 -0.3036792 110
0.29947284 24.233978 -0.44969529 68
1.1896195 24.393345 -0.52607405 109
2.1014907 24.639149 -0.60478598 62
3.0506539 24.997055 -0.69109553 60
-1.4457327 23.925327 -0.72729349 44
-0.57778978 24.071682 -0.80297709 55
0.2994262 24.230204 -0.87923229 50
1.188201 24.364256 -0.95755917 66
2.0999124 24.620646 -1.0421377 55
3.0501471 24.992901 -1.1371765 75
-1.4449735 23.912762 -1.1507075 55
-0.57745475 24.05772 -1.2287477 58
0.29913825 24.206903 -1.3068615 41
1.1889426 24.379463 -1.3902854 60
2.1004004 24.626366 -1.4792103 59
3.0588448 25.064171 -1.5877187 38
-1.4449667 23.912649 -1.5752157 81
-0.57655728 24.020334 -1.6523386 36
0.29870853 24.172129 -1.732812 36
1.1875626 24.351166 -1.8207402 63
2.1012473 24.636295 -1.9177363 42
2.9820461 24.434881 -1.9840298 22
-1.4430716 23.881289 -1.996411 29
-0.55272442 23.027416 -1.9917246 18
0.27967706 22.632063 -2.0227993 20
1.1012281 22.580864 -2.0888958 12
1.9464602 22.821478 -2.1816347 11
2.6938033 22.073021 -2.186214 8
-1.3207138 21.856398 -2.2148752 9
-0.49881586 20.781496 -2.1657796 4
0.24784127 20.055841 -2.1474097 3
0.21060385 17.042509 -2.1268461 5
0.17845601 14.441039 -2.0577357 2
0.15402231 12.463812 -1.998763 3
0.1373221 11.112396 -1.9785697 3
0.12436635 10.063989 -1.9713434 3
0.11339699 9.1763248 -1.9600137 3
0.10415928 8.4287901 -1.9498076 4
0.096452504 7.8051419 -1.9432951 4
0.068817101 5.5688257 -1.9110171 5
0.049878977 4.0363126 -1.8777634 1
10.800758 121.61943 3.4915516 20
10.075301 80.227135 2.0777822 15
-1.4372565 25.248606 0.57434016 0
-0.84764153 41.327209 0.81822842 9
1.1109028 70.093292 1.1783534 3
8.2857113 158.52429 2.2054977 17
3.970542 44.70937 0.48964241 2
3.8123217 30.356575 0.24456982 1
-2.8179319 49.503239 0.24836993 3
-1.0072614 49.109566 0.10201931 1
2.3521266 148.4093 -0.12952785 7
2.3208492 44.403065 -0.16995305 2
2.1895041 24.654404 -0.16718423 111
3.1454031 25.046068 -0.24584584 83
-1.3624995 23.935333 -0.30337551 152
-0.49454874 24.111986 -0.37675589 87
0.38431689 24.248779 -0.44999212 71
1.2747608 24.389044 -0.52607405 132
2.1874845 24.631664 -0.60478598 62
3.1443686 25.037828 -0.69252205 52
-1.3617545 23.922245 -0.7270509 50
-0.49425232 24.097534 -0.80377698 52
0.38419363 24.241001 -0.8796674 57
1.2749099 24.391891 -0.95881432 73
2.1893771 24.652973 -1.0438232 51
3.1448386 25.041573 -1.1398836 67
-1.3617206 23.92165 -1.1508993 59
-0.49331024 24.051601 -1.2283398 67
0.3836976 24.209705 -1.3070772 43
1.2740355 24.375164 -1.3902854 59
2.1909413 24.670588 -1.4823169 57
3.1488037 25.073145 -1.5889739 43
-1.3610334 23.909578 -1.5746908 57
-0.49311635 24.042149 -1.6537107 43
0.38320965 24.178917 -1.733384 34
1.273806 24.370773 -1.8225276 62
2.1907589 24.668535 -1.9208294 52
3.1050794 24.724979 -2.0084524 28
-1.3560768 23.822506 -1.9910889 44
-0.47013396 22.921631 -1.9824207 13
0.35842347 22.615013 -2.0213749 20
1.1821223 22.616659 -2.092576 12
2.0310416 22.870073 -2.1869445 11
2.7628996 22.000286 -2.1799519 7
-1.2416985 21.813196 -2.2100446 7
-0.42619029 20.779133 -2.1653652 4
0.31809983 20.070761 -2.1491129 3
0.27028072 17.053577 -2.1283321 6
0.22917733 14.460126 -2.0605569 3
0.19734041 12.451351 -1.996863 3
0.17661002 11.14335 -1.9841788 3
0.15968208 10.075269 -1.97365 3
0.14561363 9.1876068 -1.9625201 3
0.13345709 8.4205818 -1.9480047 3
0.12332789 7.7814713 -1.9374971 4
0.08801569 5.5534196 -1.9058241 6
0.064197928 4.0506196 -1.8845118 1
11.235516 121.69247 3.4947531 19
10.326607 79.969391 2.0720279 20
-2.6399875 49.416771 1.1238867 13
-0.96006668 56.412777 1.1168312 2
1.3888996 71.812424 1.2073282 5
3.2305861 57.928387 0.80609113 0
10.029634 108.63148 1.1900728 8
3.9822948 30.838949 0.24856658 10
-1.6509571 30.903543 0.15502082 5
-0.4052555 23.8125 0.049464412 7
2.5359669 45.473007 -0.17408109 35
2.2821701 24.718304 -0.16767055 72
3.2430561 25.114273 -0.24662495 72
-1.279368 23.947931 -0.30347672 180
-0.41024309 24.105568 -0.37663093 126
0.46911326 24.255289 -0.45014054 64
1.3603321 24.392431 -0.52624631 153
2.2797017 24.69157 -0.60644853 56
3.2460861 25.137737 -0.69559455 48
-1.2799482 23.958792 -0.72802144 45
-0.41040531 24.115101 -0.80431026 62
0.46927196 24.263493 -0.88053763 53
1.3624938 24.431192 -0.96054024 59
2.278358 24.677015 -1.0451716 51
3.2404189 25.093851 -1.1427712 51
-1.2792759 23.946205 -1.1518589 56
-0.41003123 24.093121 -1.2303796 55
0.46858907 24.228186 -1.3081553 42
1.3611143 24.406454 -1.3923326 61
2.2788799 24.682669 -1.4835117 62
3.2470427 25.145145 -1.5942453 36
-1.2786298 23.934113 -1.5760031 53
-0.40959799 24.067663 -1.6553574 41
0.46753034 24.173445 -1.733098 36
1.3602008 24.390074 -1.8243151 64
2.2808881 24.70442 -1.9242319 45
3.1918774 24.717943 -2.0087738 28
-1.2746137 23.858938 -1.99375 30
-0.39303556 23.094467 -1.997238 16
0.43797874 22.645493 -2.0242236 21
1.2652758 22.687954 -2.0995684 13
2.1090302 22.843018 -2.1850481 11
2.8386583 21.982613 -2.1791692 7
-1.1655487 21.817396 -2.2100446 6
-0.35372269 20.784472 -2.1657796 4
0.38823482 20.073505 -2.1495388 3
0.32950017 17.036655 -2.1263509 5
0.27942148 14.44736 -2.0588641 3
0.24095529 12.458484 -1.9981296 3
0.21558264 11.146603 -1.9848799 3
0.19492626 10.078574 -1.9744189 3
0.17768347 9.1870432 -1.9625201 3
0.16315104 8.4356508 -1.9516104 3
0.1505646 7.784874 -1.9384634 4
0.10754652 5.5606441 -1.9084206 6
0.0784771 4.0576229 -1.887886 1
1.6169552 70.816978 3.6999309 1
11.696856 122.0346 3.5057297 14
10.619889 80.039886 2.0748024 10
-2.1201341 42.468147 0.96567982 3
-0.66577613 49.217854 0.97433782 3
9.0007973 151.85881 2.1135857 4
10.397699 108.48035 1.1888075 23
4.1193805 31.046907 0.25035712 11
-1.2357352 24.752863 0.12414489 6
-0.32115802 23.741777 0.049314871 2
2.7069886 45.671513 -0.17487612 4
2.3718739 24.746023 -0.16791371 80
3.3449061 25.209856 -0.24767673 56
-1.1963646 23.964235 -0.30362856 180
-0.32652923 24.138845 -0.37713078 94
0.55432492 24.277493 -0.45058578 72
1.4487818 24.443422 -0.52745229 98
2.3685482 24.711325 -0.60713309 60
3.3469613 25.225348 -0.69833785 46
-1.1961093 23.959122 -0.72790009 51
-0.32638764 24.128378 -0.80471021 59
0.5539645 24.261707 -0.88053763 62
1.4470568 24.414316 -0.96006954 57
2.3690586 24.716652 -1.0471942 53
3.3448117 25.209145 -1.1485466 59
-1.1966763 23.970476 -1.1528184 52
-0.32603613 24.102394 -1.2307875 58
0.55343193 24.238382 -1.3088021 47
1.448427 24.437433 -1.3943797 62
2.369977 24.726234 -1.4866183 58
3.3458226 25.216764 -1.5995169 34
-1.1952754 23.942415 -1.5762656 58
-0.32574561 24.080917 -1.6561806 44
0.55300146 24.21953 -1.7365299 43
1.4467458 24.409069 -1.8261024 59
2.3701527 24.728065 -1.9267064 44
3.2870548 24.773844 -2.0142369 34
-1.1917202 23.871204 -1.9944152 30
-0.31344259 23.17141 -2.0037854 17
0.51602316 22.600012 -2.0203068 23
1.3449353 22.691353 -2.1003046 14
2.1917939 22.867228 -2.1880825 11
2.9185164 21.996246 -2.1815174 7
-1.0905752 21.845181 -2.21246 7
-0.28106156 20.777624 -2.1649506 4
0.4581205 20.064075 -2.1486871 3
0.38960141 17.063179 -2.129818 4
0.33048323 14.47401 -2.0628138 2
0.28453219 12.461515 -1.998763 3
0.25413066 11.130034 -1.9820755 3
0.23028508 10.085681 -1.9759566 3
0.20975114 9.186367 -1.9625201 4
0.19197325 8.4077568 -1.9453005 4
0.17764936 7.7804208 -1.9374971 4
0.12678342 5.55267 -1.9058241 5
0.091729693 4.0174398 -1.8693278 0
12.121975 121.98507 3.5055008 14
3.2910321 24.156803 0.62648922 5
-2.3448176 50.508564 1.1483171 26
-0.50544804 50.363598 0.9969784 3
1.8742088 71.193275 1.1971097 0
3.6689994 58.4473 0.81364858 1
4.4120116 44.398666 0.48671904 2
3.2930932 24.171932 0.19500998 1
-2.2509761 48.487171 0.24314046 1
-0.54030877 53.837173 0.11182246 2
1.893947 71.943047 -0.062803917 4
2.848352 45.374355 -0.17377532 15
2.4594257 24.749533 -0.16799477 109
3.4501624 25.32485 -0.2489233 57
-1.1138195 23.992237 -0.30393225 129
-0.24222681 24.135839 -0.37706828 128
0.64001304 24.311392 -0.45125362 73
1.5343471 24.442207 -0.52753848 150
2.4611192 24.766575 -0.60869789 66
3.4517262 25.336329 -0.70173955 51
-1.114694 24.011076 -0.72935587 57
-0.24248284 24.161352 -0.80577677 56
0.63970226 24.299585 -0.88198805 55
1.5350244 24.452997 -0.96179545 57
2.4592733 24.747999 -1.0488797 54
3.445194 25.288382 -1.1526974 62
-1.1128111 23.970516 -1.1526265 56
-0.241861 24.09939 -1.2305835 64
0.63877207 24.264252 -1.3103114 40
1.5347215 24.448172 -1.3952897 62
2.4594319 24.749596 -1.48853 61
3.4402919 25.252398 -1.602529 23
-1.1115084 23.942455 -1.5760031 64
-0.24184573 24.097868 -1.6572783 42
0.63775003 24.225428 -1.7371019 39
1.5329401 24.419794 -1.827294 61
2.4603989 24.759327 -1.9297996 45
3.3164611 24.343456 -1.9801735 21
-1.1037656 23.775671 -1.9860996 25
-0.23207745 23.124542 -1.9996502 21
0.59532821 22.614002 -2.0217311 21
1.42663 22.726271 -2.1039848 13
2.2712083 22.855474 -2.1877031 9
2.9925931 21.966204 -2.1795607 7
-1.0128382 21.817051 -2.2092395 7
-0.20841262 20.766544 -2.1637073 4
0.52742171 20.034523 -2.1457064 3
0.44947401 17.073618 -2.1313038 5
0.3806923 14.460892 -2.0611212 2
0.32771745 12.448602 -1.996863 3
0.29329109 11.140889 -1.9841788 3
0.26497275 10.065196 -1.9721123 4
0.24191922 9.1894894 -1.9633557 3
0.22224365 8.4420977 -1.9534134 3
0.2052156 7.7952738 -1.9413625 5
0.14576681 5.537065 -1.9006311 7
0.10632529 4.0388484 -1.8794504 1
11.148425 108.34341 3.114578 2
3.3659239 24.077847 0.62474239 7
-1.3250393 30.867607 0.70166862 4
-0.34061038 52.040691 1.0301477 4
2.9395306 44.350403 0.61754382 1
4.590301 44.609783 0.48920608 3
3.37025 24.108793 0.19459432 8
-2.1081285 49.110157 0.24622604 6
-0.33402672 51.034798 0.10599872 1
1.7137141 57.470432 -0.050174721 29
3.0149212 45.487862 -0.17424926 10
2.5531723 24.812418 -0.16848108 68
3.3773968 24.159916 -0.23758736 67
-1.0304072 24.003971 -0.30403349 124
-0.15800171 24.140537 -0.37713078 124
0.72582537 24.340988 -0.45184729 66
1.6220373 24.472616 -0.52831376 93
2.5508301 24.789656 -0.60948026 59
3.3879108 24.235128 -0.67156309 37
-1.0301871 23.998844 -0.72887063 50
-0.15816867 24.166048 -0.80591011 45
0.72487718 24.309191 -0.88242316 48
1.6216936 24.46743 -0.96257991 54
2.5501447 24.782995 -1.0507338 52
3.3840754 24.207691 -1.1039691 44
-1.0299884 23.994213 -1.1535861 59
-0.15789382 24.124056 -1.2318074 52
0.72358525 24.265867 -1.3105271 40
1.6224291 24.478529 -1.3973368 65
2.5503049 24.784552 -1.4911586 49
3.384717 24.21228 -1.5372632 20
-1.028098 23.950176 -1.5762656 58
-0.1578837 24.122509 -1.6589249 41
0.72242755 24.227043 -1.7373879 46
1.6221288 24.473997 -1.8317624 62
2.5513003 24.794226 -1.9332019 44
3.3876154 24.233015 -1.9721397 28
-1.021621 23.799292 -1.9877627 21
-0.15174755 23.184988 -2.0048189 24
0.67461842 22.623734 -2.0227993 20
1.5080582 22.752947 -2.1069288 15
2.3420079 22.760265 -2.179359 8
3.0703533 21.963509 -2.1803434 7
-0.93752974 21.840334 -2.2112522 8
-0.13618298 20.806929 -2.1678522 4
0.5979448 20.052437 -2.1478355 3
0.50812286 17.040207 -2.1273415 6
0.43045974 14.435725 -2.0577357 3
0.3712869 12.451329 -1.9974964 2
0.33229563 11.143734 -1.9848799 3
0.30022222 10.068133 -1.9728812 4
0.27387846 9.184679 -1.9625201 3
0.25182688 8.4451656 -1.9543148 3
0.23254064 7.7983899 -1.9423288 4
0.16565773 5.5554314 -1.9071224 6
0.12096335 4.0565786 -1.887886 1
18.089993 169.9742 4.8880806 8
3.4488158 24.058033 0.62453687 8
-1.2179134 30.888027 0.70203185 16
-0.15324804 50.173939 0.99317855 1
3.0929322 44.31992 0.61726594 10
10.766101 101.15865 1.1097456 52
3.447006 24.04541 0.19417866 8
-1.2133267 30.771702 0.15425944 26
-0.16718099 54.735626 0.1136834 1
2.9088633 41.68232 -0.15970938 6
2.6444247 24.847107 -0.16877827 75
3.65923 25.525827 -0.25114375 56
-0.9466114 24.007421 -0.30403349 165
-0.073771186 24.152941 -0.3773182 131
0.81078684 24.338306 -0.45184729 70
1.70968 24.49872 -0.5290029 101
2.6432712 24.836269 -0.61084944 61
3.6563241 25.505558 -0.70711648 41
-0.94672424 24.010283 -0.72911328 48
-0.073861301 24.182444 -0.80644333 60
0.81052619 24.330484 -0.88329339 56
1.708204 24.47757 -0.96320754 65
2.6417134 24.82163 -1.0527563 57
3.6488726 25.453577 -1.1613603 59
-0.94717115 24.021616 -1.1547376 56
-0.073696397 24.128454 -1.2320113 58
0.8093484 24.29513 -1.312252 42
1.7095335 24.496618 -1.3987017 62
2.6418743 24.823143 -1.4940262 48
3.6459591 25.433254 -1.6155822 31
-0.94606262 23.993504 -1.5788901 57
-0.073618531 24.102961 -1.6575527 43
0.80885106 24.280199 -1.7413918 44
1.7092154 24.492062 -1.8335497 57
2.6424754 24.828791 -1.9366044 46
3.525367 24.592035 -2.0023468 33
-0.93398529 23.687204 -1.9781166 50
-0.07066986 23.137554 -2.000684 23
0.75424916 22.641151 -2.0245795 26
1.588858 22.767412 -2.1087689 18
2.4222846 22.759871 -2.1801176 9
3.1464367 21.948717 -2.1799519 6
-0.86207104 21.863356 -2.2132652 7
-0.063333683 20.735664 -2.1603911 4
0.66701025 20.022402 -2.1448548 3
0.56786549 17.046263 -2.1283321 6
0.48137456 14.449966 -2.0599928 3
0.41487941 12.453905 -1.9981296 3
0.37132362 11.146442 -1.985581 3
0.33575684 10.078794 -1.9751878 3
0.30593729 9.1836662 -1.9625201 3
0.28143421 8.4481297 -1.9552162 3
0.25976068 7.7975307 -1.9423288 4
0.18492281 5.5510378 -1.9058241 6
0.13403593 4.0235085 -1.872702 1
4.0791378 27.764687 0.72112536 5
-1.1105174 30.904079 0.7023043 7
0.024232639 55.537117 1.0993361 2
3.265161 44.548191 0.6206001 0
10.363704 94.250275 1.0343488 8
4.102448 27.923346 0.22560918 6
-1.1096407 30.879683 0.15478039 43
0.02375737 54.447876 0.11308525 1
3.0853376 42.094772 -0.16133003 4
2.7337644 24.86158 -0.16894038 90
3.7663331 25.635576 -0.25235134 54
-0.863235 24.02257 -0.30418533 119
0.010543993 24.165049 -0.37750566 129
0.89647394 24.355312 -0.45221832 71
1.79694 24.516533 -0.52951974 109
2.7330093 24.854715 -0.61153406 58
3.7587008 25.583628 -0.70964032 50
-0.86391205 24.04141 -0.72996247 52
0.010558608 24.198545 -0.80697662 61
0.89633274 24.351475 -0.88416362 58
1.796558 24.51132 -0.96477652 56
2.7322721 24.848009 -1.0542732 48
3.7522209 25.539522 -1.1658722 56
-0.8631708 24.020784 -1.1545457 54
0.010533302 24.140549 -1.2326233 63
0.89547157 24.328079 -1.3141925 45
1.7970756 24.518383 -1.4002939 58
2.7337444 24.861397 -1.4968939 55
3.7486424 25.515165 -1.6216068 33
-0.86187387 23.984692 -1.5781027 54
0.010536103 24.146967 -1.6605715 37
0.89374661 24.281214 -1.7416778 40
1.7967392 24.513794 -1.8356351 56
2.7317433 24.843201 -1.9384602 35
3.6198812 24.63875 -2.0071671 31
-0.85730803 23.857632 -1.9920868 30
0.01008006 23.101795 -1.9975827 26
0.83415622 22.66227 -2.026716 23
1.6715242 22.805422 -2.1128173 16
2.4995406 22.731485 -2.178221 8
3.2172465 21.898214 -2.1760383 7
-0.78474802 21.838392 -2.2104471 7
0.0090771932 20.803394 -2.1674376 4
0.73689741 20.019953 -2.1448548 3
0.6266346 17.024343 -2.1258554 5
0.53108311 14.428411 -2.0571716 3
0.45863965 12.460275 -1.9993963 3
0.40936059 11.121466 -1.9813743 3
0.37108073 10.081483 -1.9759566 4
0.33885574 9.2059975 -1.967533 4
0.3100619 8.4237289 -1.9498076 3
0.28683478 7.7926974 -1.9413625 4
0.20415926 5.5465779 -1.9045259 7
0.14794639 4.019392 -1.8710148 0
11.988978 79.668365 2.0702813 10
-0.99978286 30.819838 0.7003063 23
0.26106167 66.478462 1.315926 1
2.3445864 58.172546 0.97862226 2
3.4093106 44.388969 0.61854404 5
5.0233645 44.2612 0.48593366 0
4.2010841 27.916765 0.22567314 6
-1.0163689 31.331125 0.15702446 11
0.19853202 50.5555 0.10500179 0
2.3502326 58.312634 -0.050928701 5
3.4028757 44.305187 -0.16984603 14
2.8250415 24.89163 -0.16921055 111
3.8700802 25.717199 -0.25328627 51
-0.78067213 24.065413 -0.30469146 78
0.095021337 24.196861 -0.37800547 127
0.98212862 24.368019 -0.45251516 77
1.8843452 24.534035 -0.53003657 121
2.8260651 24.90065 -0.61290324 67
3.8664269 25.692924 -0.71304202 40
-0.77985692 24.040283 -0.72984117 46
0.095074333 24.210356 -0.80737656 56
0.98165172 24.356186 -0.88445371 57
1.8845562 24.536781 -0.96603173 56
2.8248501 24.889944 -1.0564644 49
3.8579974 25.636909 -1.1709255 53
-0.7794469 24.027643 -1.1547376 56
0.094846539 24.152349 -1.2332352 66
0.98038697 24.324804 -1.3141925 46
1.885708 24.551779 -1.4025687 61
2.8263638 24.90328 -1.5000005 56
3.8561003 25.624302 -1.6293886 38
-0.77866405 24.003511 -1.5791525 48
0.094840355 24.150774 -1.6608459 43
0.97914112 24.293894 -1.7428217 45
1.8862685 24.559076 -1.8395077 55
2.8301384 24.936541 -1.9465024 42
3.705271 24.622021 -2.0068457 37
-0.77273172 23.820637 -1.9887606 26
0.090767257 23.113573 -1.9986165 21
0.91630566 22.734856 -2.0334811 22
1.7547801 22.847105 -2.1172335 14
2.5761786 22.698883 -2.1759453 8
3.2889268 21.855358 -2.1729074 7
-0.7104485 21.900663 -2.2164855 8
0.081678912 20.799257 -2.1670232 4
0.80693579 20.021233 -2.1452806 3
0.68509775 16.998257 -2.1228838 6
0.58048761 14.402729 -2.0537863 3
0.50197232 12.454652 -1.998763 2
0.44849643 11.127838 -1.9827765 3
0.4062694 10.080126 -1.9759566 3
0.3700434 9.1813068 -1.9625201 4
0.33962125 8.4264898 -1.950709 3
0.31372198 7.7838922 -1.9394298 4
0.22336683 5.5420508 -1.9032276 6
0.16256 4.0333462 -1.8777634 1
4.3002691 27.913374 0.72574925 5
-0.88918716 30.71921 0.697945 1
0.4018355 54.171898 1.0723416 0
3.5837688 44.619991 0.62193382 9
5.1741152 44.211617 0.48558459 0
4.3076415 27.961229 0.22615275 6
-1.4377464 49.670574 0.2489109 3
0.41318807 55.702347 0.11569388 0
1.989628 45.424431 -0.039678309 1
3.3669682 41.920696 -0.16074903 1
2.9174914 24.929291 -0.16953476 107
3.9750516 25.802364 -0.25426015 59
-0.69643193 24.059996 -0.30459023 85
0.17969124 24.224379 -0.37844285 102
1.0680579 24.384418 -0.45288619 67
1.9738154 24.575142 -0.53107029 99
2.9162211 24.918434 -0.6135878 59
3.9682648 25.758308 -0.71523666 43
-0.69663 24.066839 -0.73056906 49
0.17970228 24.225866 -0.80790985 47
1.0673643 24.368584 -0.88503385 56
1.9733939 24.569895 -0.9676007 61
2.9168251 24.923594 -1.0583185 47
3.9626741 25.722019 -1.1754373 48
-0.69556999 24.030218 -1.1547376 55
0.1792423 24.163855 -1.2338471 65
1.0665139 24.349167 -1.3157018 40
1.973956 24.576891 -1.4043884 64
2.9174521 24.928953 -1.5021511 54
3.9625421 25.721163 -1.6364172 30
-0.69591081 24.04199 -1.5815145 59
0.17917131 24.154285 -1.6611203 51
1.0649842 24.314243 -1.7445376 35
1.9751778 24.592102 -1.8424866 52
2.9190204 24.942352 -1.9477396 49
3.7990873 24.660166 -2.0110233 25
-0.68577147 23.691702 -1.9777839 23
0.17168461 23.144997 -2.0013731 23
0.99583387 22.735498 -2.0338373 20
1.8399416 22.908335 -2.1234899 12
2.6558597 22.693707 -2.1763246 8
3.3700452 21.875219 -2.1760383 6
-0.63296026 21.867207 -2.2128625 7
0.15434039 20.806801 -2.1678522 5
0.87751412 20.034187 -2.1469839 3
0.74529701 17.015589 -2.1253603 7
0.63145208 14.41644 -2.0560431 2
0.54561692 12.456769 -1.9993963 3
0.48716477 11.122271 -1.9820755 3
0.43990719 10.043351 -1.9690369 3
0.40380165 9.2190399 -1.9708748 4
0.36954471 8.4369326 -1.9534134 3
0.34089094 7.7827497 -1.9394298 3
0.2428764 5.5450172 -1.9045259 6
0.1761619 4.0218844 -1.872702 1
11.491162 95.306511 2.7451506 7
4.4238296 28.064091 0.73006493 0
-0.78459716 30.826065 0.7003063 2
0.79561126 72.933372 1.4437742 3
2.741199 57.955013 0.97526091 27
3.7174478 44.344158 0.61826622 2
11.210777 92.981018 1.0216519 29
4.4039726 27.93812 0.22608881 8
-1.0666056 41.905903 0.20998038 13
0.7292698 66.851875 0.13885592 2
2.1343811 45.125534 -0.039423492 1
3.6312339 43.315742 -0.16614607 36
3.0121541 24.982492 -0.16996704 87
4.0819106 25.895008 -0.25531194 47
-0.61213732 24.050285 -0.30443838 200
0.26446712 24.243599 -0.37875524 99
1.1539247 24.396523 -0.45318303 69
2.0612571 24.588028 -0.53150105 88
3.0098863 24.963684 -0.61495697 54
4.0780773 25.870691 -0.71874809 37
-0.61282027 24.077118 -0.73081172 54
0.26422164 24.221094 -0.80777657 52
1.1541198 24.400646 -0.88633925 58
2.0638216 24.618618 -0.96979731 56
3.0105042 24.968809 -1.0606781 43
4.0742135 25.846182 -1.181754 54
-0.61219299 24.052471 -1.1556971 58
0.26406813 24.207024 -1.2360909 57
1.1522567 24.361256 -1.3165643 40
2.0647376 24.629545 -1.4078004 62
3.0097103 24.962223 -1.5047798 53
4.0690851 25.813646 -1.6431948 29
-0.61178124 24.036293 -1.5809896 53
0.26357147 24.161493 -1.6616693 41
1.1509812 24.33429 -1.7462536 39
2.0633407 24.612883 -1.8445719 53
3.0127509 24.987442 -1.95207 43
3.9081149 24.792477 -2.0229135 19
-0.60438633 23.745754 -1.9821081 21
0.25299633 23.192074 -2.0055082 21
1.0776366 22.783621 -2.038466 20
1.9235555 22.945433 -2.1275382 12
2.732676 22.664532 -2.1744282 8
3.4358459 21.796474 -2.169385 6
-0.55642313 21.861326 -2.2120574 6
0.22705553 20.814093 -2.1686811 4
0.94706535 20.023056 -2.1461322 3
0.80300021 16.977201 -2.1209025 7
0.68233234 14.426014 -2.0577357 3
0.58890921 12.450844 -1.998763 3
0.52598578 11.120502 -1.9820755 3
0.47477689 10.037834 -1.968268 3
0.43431631 9.1824074 -1.9633557 3
0.39807224 8.4161282 -1.9489062 3
0.36787233 7.7776351 -1.9384634 4
0.26223063 5.5441356 -1.9045259 7
0.19122793 4.0429816 -1.8828247 1
11.767632 94.813477 2.732116 7
4.5249467 28.068214 0.73057866 0
-0.90964681 41.423328 0.94097698 24
2.9562659 58.196732 0.97949618 4
3.9038861 44.693497 0.62332302 0
3.7854812 30.500154 0.33527109 12
4.4651814 27.697491 0.22426628 2
-0.90855271 41.373505 0.20729552 10
1.0320801 71.672417 0.14887509 3
2.948971 58.053127 -0.050726242 17
3.760484 43.051762 -0.16518286 11
3.1037748 25.007551 -0.1702102 102
4.1913743 25.999067 -0.2564806 57
-0.52906054 24.092262 -0.30494452 148
0.34868836 24.214535 -0.37831789 192
1.2400919 24.412315 -0.45355406 72
2.1536846 24.656378 -0.53313774 101
3.1024253 24.996677 -0.61603278 61
4.1849041 25.958935 -0.72160113 41
-0.52877176 24.079109 -0.73081172 57
0.34917036 24.248005 -0.8087098 61
1.2405038 24.420422 -0.88720948 55
2.152874 24.647099 -0.97120941 61
3.1030579 25.001774 -1.0625322 53
4.1796727 25.926483 -1.1860855 51
-0.52893215 24.086416 -1.1572324 59
0.34873736 24.217937 -1.2367028 54
1.23911 24.392986 -1.3185049 43
2.1531305 24.650036 -1.4093927 60
3.1046951 25.014965 -1.5086032 42
4.1801343 25.929346 -1.6514785 35
-0.52787519 24.038282 -1.5809896 61
0.34813905 24.176388 -1.6627669 46
1.2367264 24.346062 -1.7473975 42
2.1541026 24.661163 -1.8487425 60
3.1038847 25.008434 -1.9545445 41
4.0200157 24.936132 -2.0357676 22
-0.52166951 23.75569 -1.9827733 23
0.33263049 23.099401 -1.9975827 41
1.1585746 22.807573 -2.0409584 15
2.0050247 22.954451 -2.1290102 14
2.8112829 22.650902 -2.1740489 8
3.5144432 21.80007 -2.1709504 6
-0.48089579 21.898945 -2.2156804 7
0.30005258 20.837042 -2.1711681 4
1.0157424 19.995796 -2.1435773 3
0.86386776 17.006008 -2.1248648 8
0.73228252 14.415635 -2.0566072 3
0.6331687 12.46449 -2.0012963 3
0.5655995 11.134331 -1.9848799 3
0.51060915 10.051797 -1.9713434 3
0.46696159 9.1925554 -1.965862 3
0.42843613 8.4341478 -1.9534134 3
0.39501911 7.7763033 -1.9384634 4
0.28234947 5.558301 -1.9097189 6
0.20497142 4.0350451 -1.8794504 1
10.244884 80.25164 2.3135231 17
4.5988383 27.906267 0.72677678 1
-0.9282313 50.262466 1.1416873 9
1.2518902 69.971092 1.3852727 2
3.1515861 58.04229 0.97707599 0
10.483568 115.3735 1.6095705 4
3.9354823 30.827965 0.33902347 2
4.5345197 27.515976 0.22292337 7
-0.92801583 50.250801 0.25175607 5
2.6523833 148.24796 0.30795211 7
2.4972908 45.992233 -0.040194929 24
3.9009664 42.930817 -0.16477007 2
3.1991529 25.060047 -0.17064248 43
4.2957602 26.067156 -0.25729865 71
-0.44510734 24.101961 -0.30504575 128
0.43399775 24.257158 -0.37900516 107
1.3263835 24.427805 -0.4539251 66
2.2422714 24.676588 -0.53374076 91
3.2008014 25.072962 -0.61818433 51
4.2897959 26.030964 -0.7240153 42
-0.44486439 24.088804 -0.73105431 52
0.43459621 24.290607 -0.81017625 54
1.3263896 24.427917 -0.88764459 54
2.2425122 24.679239 -0.97277844 74
3.1984086 25.054218 -1.0652289 43
4.2902894 26.03396 -1.1916802 51
-0.44522053 24.108089 -1.158192 55
0.43312868 24.208584 -1.2362949 62
1.3251162 24.404465 -1.3193674 41
2.2431376 24.686119 -1.4118948 61
3.199579 25.063387 -1.5121878 50
4.2900929 26.032766 -1.6590092 34
-0.4441838 24.05195 -1.581777 43
0.43274242 24.186995 -1.6635902 46
1.3230003 24.365499 -1.7491134 40
2.2434216 24.689247 -1.8514235 49
3.1957066 25.033052 -1.9573283 33
4.0966616 24.859005 -2.0306258 28
-0.43896431 23.769323 -1.9837712 24
0.41411591 23.145914 -2.0017178 22
1.2375327 22.791454 -2.0398903 28
2.0854988 22.951279 -2.1293783 12
2.8893237 22.633051 -2.1732905 8
3.5898709 21.783741 -2.1705589 6
-0.40151197 21.741329 -2.199578 5
0.37164691 20.772223 -2.1645362 4
1.0861815 20.004042 -2.1448548 3
0.92171812 16.975145 -2.1213977 8
0.78238332 14.409037 -2.0560431 3
0.67667401 12.462204 -2.0012963 3
0.602754 11.10083 -1.9792709 3
0.54675752 10.069551 -1.9751878 3
0.50010723 9.2103996 -1.9700394 3
0.45745161 8.424818 -1.9516104 4
0.42258197 7.782629 -1.9403962 5
0.30031389 5.5308361 -1.9006311 7
0.21925174 4.0379267 -1.8811376 1
10.542637 80.350182 2.3174107 13
13.214222 78.476974 2.0450039 10
-0.82715034 55.231564 1.2544847 3
1.5372517 71.889481 1.4233501 1
3.3380177 57.751442 0.97237015 0
10.23227 108.40766 1.5128795 16
4.0425477 30.810074 0.33897984 9
4.6139369 27.401373 0.22212401 4
-0.35446873 23.669048 0.1185748 8
2.6416616 45.703701 -0.039950583 4
4.1492782 43.960293 -0.1687758 12
3.304822 25.187534 -0.17158809 77
4.4086423 26.182163 -0.25858417 55
-0.36091322 24.099367 -0.30499512 176
0.51875389 24.259493 -0.37906766 169
1.4123366 24.435005 -0.45414773 63
2.3321531 24.708424 -0.53460217 99
3.2955859 25.117144 -0.61955351 47
4.3992248 26.126236 -0.7270878 39
-0.3610754 24.110199 -0.7316609 48
0.51904172 24.272955 -0.80964303 56
1.4128041 24.443092 -0.8883698 49
2.3320255 24.707073 -0.97419053 57
3.295723 25.118189 -1.0684314 35
4.3977265 26.117336 -1.196192 48
-0.36070591 24.085527 -1.1570406 47
0.51805681 24.226894 -1.2373147 57
1.4102955 24.399691 -1.3193674 38
2.3326719 24.713921 -1.4139421 63
3.2969165 25.127285 -1.5167282 42
4.4001613 26.131796 -1.6662889 34
-0.3602241 24.053354 -1.581777 50
0.51785064 24.217255 -1.6657857 44
1.4105762 24.404547 -1.7522594 39
2.3333378 24.720978 -1.8544025 57
3.2898133 25.073147 -1.9613494 28
4.2085681 24.993958 -2.0428371 22
-0.35634935 23.794624 -1.9857669 31
0.49371493 23.088549 -1.9968935 23
1.3205307 22.846659 -2.0452313 12
2.1704667 22.995409 -2.1341627 13
2.9693463 22.630724 -2.1740489 8
3.6639054 21.7593 -2.169385 6
-0.32526055 21.718723 -2.1971626 5
0.44500378 20.810574 -2.1686811 4
1.1553135 19.988216 -2.1435773 3
0.98096681 16.971825 -2.1213977 8
0.83221847 14.398311 -2.0549147 3
0.71994317 12.455823 -2.000663 3
0.64195395 11.106522 -1.9806732 3
0.57963836 10.028393 -1.9674991 4
0.53044868 9.1773558 -1.9633557 3
0.48753154 8.4348412 -1.9543148 3
0.45019379 7.7888565 -1.9423288 4
0.32092822 5.5524173 -1.9084206 4
0.232299 4.019033 -1.872702 1
10.829455 80.360443 2.3187826 10
4.6844335 27.239008 0.71023345 16
-0.58149242 50.631603 1.1499518 4
4.3432417 44.359581 0.61926645 1
4.1799846 31.017756 0.34142327 14
11.264432 65.500336 0.53128153 2
-0.58347249 50.804012 0.25450104 3
1.4519123 58.365818 0.12126008 0
2.7864962 45.454655 -0.039741144 29
4.2839942 43.754456 -0.16804191 15
3.4066119 25.278912 -0.17229055 59
4.5203457 26.284874 -0.25975284 50
-0.2773397 24.148474 -0.30560249 104
0.60383004 24.273527 -0.37931758 186
1.4995798 24.461861 -0.45474136 63
2.4234533 24.751873 -0.53572202 103
3.3987286 25.220413 -0.62238967 46
4.5107265 26.228939 -0.73037976 39
-0.276867 24.107315 -0.73153961 41
0.6043635 24.294975 -0.81044292 51
1.49983 24.46594 -0.88938504 54
2.4229288 24.746517 -0.97607332 62
3.397259 25.209509 -1.0728136 37
4.5057979 26.200279 -1.200704 52
-0.27685896 24.106615 -1.1580001 55
0.603118 24.244905 -1.2383345 59
1.4988793 24.450434 -1.322386 44
2.4255409 24.773195 -1.417809 69
3.3915393 25.167065 -1.5198348 39
4.5150328 26.253981 -1.6750747 31
-0.27671841 24.094378 -1.5844015 61
0.60267919 24.227266 -1.6666089 40
1.4967319 24.415403 -1.7534033 37
2.4242804 24.760321 -1.8579773 56
3.384239 25.11289 -1.9653704 26
4.2971392 24.986975 -2.0434799 56
-0.27241868 23.719992 -1.9794471 24
0.5740087 23.074732 -1.9958597 21
1.4122176 23.036766 -2.0626783 9
2.2530513 23.011477 -2.1363707 13
3.0467286 22.608383 -2.1729112 9
3.7418613 21.758148 -2.1705589 6
-0.24889764 21.671972 -2.192332 5
0.51754457 20.804916 -2.1682668 4
1.2238616 19.964214 -2.1414483 3
1.0387464 16.944525 -2.1184258 7
0.88247287 14.395318 -2.0549147 3
0.76390105 12.461119 -2.0019295 3
0.6804781 11.100283 -1.979972 3
0.61656201 10.057652 -1.97365 4
0.5639165 9.1988745 -1.9683684 3
0.51625633 8.4214191 -1.9516104 3
0.47642922 7.7717404 -1.9384634 4
0.3403078 5.5512629 -1.9084206 5
0.24788004 4.0435376 -1.8845118 1
3.3428307 24.167936 0.69769287 4
4.9108672 27.970795 0.72975665 7
-0.4107292 51.381107 1.166935 3
4.5279279 44.638611 0.62337857 2
3.3429022 24.168453 0.26615742 8
4.8701386 27.738817 0.22512957 3
-0.40696114 50.909737 0.25502199 0
1.6526889 58.256435 0.12104408 6
2.9428172 45.408726 -0.039709724 28
4.38059 43.186077 -0.16591674 5
3.3474092 24.201038 -0.16502284 21
4.6293616 26.367424 -0.26072672 99
-0.19278833 24.117298 -0.3051976 167
0.69059825 24.343235 -0.38044223 77
1.5872862 24.492395 -0.45540923 66
2.5158923 24.802944 -0.53701419 93
3.4993448 25.2995 -0.62463903 39
4.6243815 26.339058 -0.73389119 43
-0.19300272 24.144115 -0.73263144 42
0.69007206 24.324686 -0.81150949 52
1.586257 24.476513 -0.88996524 45
2.5145392 24.789604 -0.978113 67
3.4983776 25.292505 -1.0768589 28
4.6207204 26.318207 -1.2068402 57
-0.19302885 24.147387 -1.1599193 55
0.68842453 24.266611 -1.2395585 61
1.584993 24.45701 -1.3230329 38
2.5148218 24.792389 -1.4194013 61
3.4914038 25.242088 -1.525092 32
4.625288 26.344223 -1.6818522 34
-0.19257975 24.091206 -1.584139 67
0.68747079 24.232994 -1.6671578 37
1.5840126 24.441881 -1.7556913 38
2.5147207 24.791393 -1.8609562 56
3.3505759 24.223934 -1.8967031 19
4.3857131 24.979675 -2.0441227 25
-0.18965065 23.724783 -1.9797797 30
0.65647221 23.140308 -2.0017178 17
1.4789664 22.82098 -2.043807 21
2.3397939 23.066875 -2.1422591 13
3.1196268 22.55422 -2.1687391 9
3.8205423 21.760637 -2.1721246 6
-0.17331046 21.680668 -2.1931372 5
0.59038979 20.810936 -2.1690958 4
1.2901984 19.908224 -2.1359124 2
1.1001977 16.976444 -2.1228838 7
0.93399704 14.411909 -2.0577357 2
0.80867094 12.478083 -2.0050962 3
0.72125858 11.129278 -1.985581 3
0.65293533 10.075026 -1.9774942 3
0.59551716 9.189043 -1.9666975 3
0.5466575 8.4351215 -1.9552162 3
0.50405681 7.7777767 -1.9403962 4
0.35919389 5.5424905 -1.9058241 5
0.26199311 4.0426474 -1.8845118 0
3.4136927 24.061111 0.69494879 7
4.9048061 27.374889 0.71465188 36
-0.30192494 67.050034 1.5227643 11
9.4037333 137.65569 2.3192613 7
10.701406 101.95402 1.4243017 17
3.414885 24.069515 0.26519752 8
5.0283079 28.064182 0.22791132 9
-0.23958912 53.206795 0.26652279 2
1.8426561 57.830524 0.12017176 3
3.1064851 45.473999 -0.03977605 4
4.7442641 45.199364 -0.17371415 7
3.4296186 24.173365 -0.16491477 57
4.7446518 26.481028 -0.26201221 76
-0.10872815 24.145823 -0.30555189 140
0.7746762 24.312693 -0.38000485 122
1.6741339 24.506655 -0.45578027 57
2.6049602 24.817873 -0.53753102 125
3.429795 24.174608 -0.59715766 83
4.7367439 26.436895 -0.73707342 40
-0.10875884 24.152639 -0.7328741 46
0.77484953 24.318134 -0.81137615 51
1.6735934 24.498743 -0.89098048 51
2.6035593 24.804527 -0.97905439 57
3.4317031 24.188057 -1.0303394 49
4.7308831 26.404182 -1.2115325 51
-0.10870159 24.139923 -1.1595354 63
0.77388996 24.288017 -1.2407823 58
1.6725321 24.483208 -1.3247578 40
2.6042662 24.811262 -1.4209936 57
3.4353495 24.213757 -1.4636773 36
4.7376361 26.441874 -1.689132 30
-0.10857444 24.111687 -1.5854512 71
0.77269101 24.250389 -1.66853 41
1.6739438 24.503872 -1.7605531 37
2.6070731 24.838003 -1.8651267 59
3.5785227 25.2229 -1.9758871 15
4.4714751 24.956366 -2.0434799 25
-0.10715764 23.79705 -1.9857669 26
0.74092346 23.253386 -2.0117109 17
1.5626904 22.875301 -2.0491481 14
2.4240401 23.094219 -2.1455712 11
3.1983366 22.543194 -2.1687391 7
3.8859468 21.688393 -2.1662538 7
-0.097450539 21.641344 -2.1891115 5
0.66176289 20.768984 -2.1649506 4
1.3632071 19.955183 -2.1414483 3
1.1572857 16.940821 -2.1189213 7
0.9813295 14.365102 -2.0515292 3
0.85114592 12.459422 -2.002563 3
0.75929743 11.114906 -1.9834777 3
0.68676203 10.053103 -1.97365 3
0.62678951 9.1752005 -1.9641911 3
0.57556707 8.4253855 -1.9534134 3
0.53199685 7.7875876 -1.9432951 4
0.37776503 5.5298786 -1.9019294 5
0.27486709 4.0236163 -1.8760762 1
3.4982362 24.053005 0.69506311 15
4.9837966 27.26713 0.7122885 9
-0.055050377 54.38195 1.2350494 2
3.1853778 44.351479 0.74742889 6
4.9063182 45.222237 0.63199186 2
3.4994581 24.061407 0.26524115 8
5.1363082 28.101545 0.22835895 4
-0.057598624 56.899258 0.2850163 1
2.058928 58.231487 0.12101915 6
3.2629077 45.430962 -0.039748125 14
4.607769 42.470463 -0.16328703 0
3.7218008 25.590179 -0.17466809 34
4.8600717 26.590214 -0.26325879 50
0.86081058 24.345814 -0.38056719 103
1.7611004 24.520607 -0.45615131 58
2.6967509 24.856339 -0.53856474 117
3.7092626 25.503969 -0.63031137 56
4.851284 26.542133 -0.74047512 41
-0.024461884 24.164865 -0.73323804 43
0.86057854 24.339252 -0.81217605 55
1.7616769 24.528637 -0.89228588 51
2.6953006 24.84297 -0.98093718 60
3.7076514 25.492893 -1.0864661 31
4.8460126 26.513294 -1.2173077 47
-0.024477314 24.180109 -1.1614546 61
0.85894853 24.293152 -1.2411902 61
1.7591287 24.493155 -1.3256203 40
2.697319 24.861574 -1.4244056 52
3.6951244 25.406759 -1.5365624 36
4.8521576 26.546915 -1.6969136 36
-0.024416367 24.119902 -1.5859761 65
0.85832298 24.275461 -1.6704509 42
1.7611829 24.521757 -1.762269 40
2.6971998 24.860477 -1.86751 52
3.6740069 25.26156 -1.9799081 18
4.5829353 25.073957 -2.0544059 32
-0.024093816 23.801266 -1.9860996 22
0.8168782 23.1033 -1.998961 18
1.6431015 22.877655 -2.04986 15
2.5102241 23.137094 -2.1503556 12
3.2775807 22.535833 -2.1691184 7
3.9616296 21.674696 -2.1662538 7
-0.022032443 21.764923 -2.2015908 6
0.73467791 20.778477 -2.1661942 4
1.4297214 19.906666 -2.136764 3
1.2166975 16.940638 -2.1194165 7
1.0337366 14.393188 -2.0560431 3
0.89378345 12.444557 -2.000663 3
0.79893744 11.123972 -1.985581 3
0.72213095 10.054561 -1.9744189 3
0.66021425 9.1924658 -1.9683684 4
0.60609031 8.4388733 -1.9570191 4
0.55667484 7.7508392 -1.9345981 3
0.39787871 5.5398474 -1.9058241 4
0.288131 4.0117803 -1.8710148 0
10.571535 94.366302 3.0007207 18
3.5868897 24.072287 0.69597781 12
5.1177783 27.457911 0.71773446 4
0.12562071 50.686775 1.1511325 5
2.2507193 57.928936 1.1475464 1
3.344981 44.403896 0.74850452 4
11.219217 100.1478 1.400129 13
4.1581664 27.906229 0.30778271 4
7.2645016 38.97551 0.31692719 2
0.17553544 70.826897 0.3547827 3
2.2674613 58.35984 0.12130162 6
3.1459389 41.761658 -0.036547191 5
2.7885778 24.892107 -0.095740013 0
3.8264315 25.679893 -0.17537053 35
4.974113 26.687117 -0.2643885 56
0.06000137 24.209988 -0.30636168 145
0.94640917 24.358646 -0.38081712 92
1.8493863 24.550203 -0.45681918 59
2.7857254 24.866644 -0.53899544 135
3.8141775 25.597656 -0.63295192 47
4.9658833 26.642962 -0.74376714 41
0.059958752 24.192791 -0.73408723 46
0.94599879 24.348083 -0.812576 55
1.8499897 24.558212 -0.89359123 59
